ply
format ascii 1.0
element vertex 717
property float x
property float y
property float z
property float nx
property float ny
property float nz
property uchar diffuse_red
property uchar diffuse_green
property uchar diffuse_blue
end_header
-1.84007 2.35435 0.06779 0.196321 -0.87871 -0.435117 131 118 110
-1.84007 2.35038 0.0792898 0.0475399 -0.944325 -0.325562 161 147 140
-1.84913 2.34316 0.0961026 0.181469 -0.817758 -0.546206 140 125 119
-1.85126 2.33666 0.112989 0.0761283 -0.926915 -0.367468 152 138 131
-1.85068 2.33323 0.124458 0.388966 -0.919445 -0.0576703 130 117 111
-1.86053 2.33036 0.130069 0.211713 -0.949237 -0.232652 145 129 123
-1.86082 2.32849 0.14111 0.258696 -0.906509 0.333644 143 128 121
-1.85902 2.32207 0.152435 0.175921 -0.923877 -0.339857 148 133 127
-1.86892 2.32006 0.157799 0.0999064 -0.951205 -0.291939 146 133 126
-1.8686 2.31599 0.168193 0.210781 -0.825034 -0.5243 137 124 117
-1.86807 2.31627 0.168092 0.185488 -0.826084 -0.532146 137 124 117
-1.86918 2.31223 0.179405 0.119933 -0.97313 -0.196557 151 138 131
-1.86933 2.31227 0.178744 0.160223 -0.971463 -0.174892 150 137 130
-1.87954 2.30631 0.194514 0.0988956 -0.944576 -0.313043 145 133 125
-1.87878 2.30615 0.195232 0.123503 -0.932301 -0.339943 144 132 125
-1.87883 2.30248 0.205702 0.0946318 -0.950805 -0.294983 148 136 128
-1.87954 2.29892 0.215749 0.115262 -0.902699 -0.414547 148 136 129
-1.88875 2.29306 0.222322 0.210297 -0.928893 -0.30485 139 126 119
-1.88936 2.29195 0.231254 0.140425 -0.955284 -0.260217 143 129 123
-1.88901 2.29062 0.243358 0.245836 -0.96757 -0.0580724 140 126 119
-1.89794 2.28049 0.260393 0.0966285 -0.955915 -0.277288 140 128 121
-1.89684 2.27722 0.272961 0.129436 -0.938504 -0.32009 156 144 137
-1.90744 2.27097 0.288098 0.0967575 -0.939454 -0.328732 142 130 124
-1.90761 2.26802 0.298553 0.151706 -0.934578 -0.32179 131 120 113
-1.90783 2.26302 0.309466 0.0247446 -0.993435 -0.111688 147 137 129
-1.9176 2.26104 0.315246 0.17092 -0.950882 -0.258087 142 131 124
-1.91733 2.2587 0.327413 0.231704 -0.926605 -0.29617 126 115 108
-1.91754 2.25791 0.326102 0.243344 -0.897813 -0.367037 128 117 110
-1.91715 2.25408 0.33822 0.197035 -0.858064 -0.474239 128 116 109
-1.92682 2.24587 0.352747 0.25755 -0.966092 -0.0182894 124 111 104
-1.92712 2.24285 0.363392 0.0153569 -0.94248 -0.333909 134 121 115
-1.9278 2.23779 0.375345 0.0833978 -0.943838 -0.31971 136 123 116
-1.93777 2.23509 0.380525 0.138201 -0.907372 -0.396958 119 106 99
-1.93537 2.2282 0.400247 0.0339139 -0.959236 -0.280566 133 120 113
-1.93654 2.23183 0.390509 0.0487922 -0.935969 -0.348684 121 107 101
-1.94322 2.21951 0.424897 0.168935 -0.910861 -0.376555 131 117 111
-1.95229 2.21696 0.428931 -0.190014 -0.976985 -0.0969251 134 120 114
-1.95032 2.21266 0.437727 0.0139124 -0.999841 0.0111863 136 123 116
-1.94998 2.21262 0.437959 -0.0169574 -0.997856 -0.0632159 136 122 116
-1.95002 2.21035 0.449132 0.0646306 -0.975935 -0.208264 139 125 119
-1.94891 2.20975 0.446938 -0.0433953 -0.997818 -0.0497552 137 123 117
-1.96064 2.20905 0.455192 0.0569759 -0.936521 -0.34595 139 125 119
-1.9606 2.20423 0.465581 0.19777 -0.892191 -0.406057 133 119 113
-1.96169 2.20167 0.477592 0.100456 -0.898819 -0.426654 130 118 110
-1.97024 2.19488 0.491975 0.0772926 -0.959859 -0.269621 127 114 107
-1.96998 2.19123 0.502558 0.148673 -0.915302 -0.374324 144 131 123
-1.97913 2.18566 0.517917 -0.0717674 -0.837916 -0.54106 135 122 114
-1.98 2.18123 0.528956 0.175626 -0.917688 -0.356376 131 118 110
-1.98124 2.176 0.540758 0.0962777 -0.962339 -0.254233 139 126 119
-1.98833 2.17393 0.544517 0.181186 -0.90095 -0.394284 137 123 115
-1.98539 2.16965 0.557513 0.276399 -0.890979 -0.360221 126 111 104
-1.99604 2.1617 0.574014 0.0993477 -0.947301 -0.304549 114 99 92
-2.00293 2.15578 0.593447 0.144281 -0.989414 -0.0155837 122 108 102
-2.00274 2.15119 0.603783 0.0571127 -0.92873 -0.366332 127 113 108
-2.00279 2.14914 0.614392 0.242109 -0.948241 -0.205482 126 112 107
-2.01067 2.14636 0.62 -0.0307208 -0.961039 -0.274701 132 118 113
-2.01181 2.14526 0.619217 0.168268 -0.953984 -0.248194 135 121 116
-2.00927 2.14222 0.630223 0.300616 -0.95134 -0.067696 139 125 120
-2.01931 2.13709 0.645014 0.131446 -0.916986 -0.37664 126 111 106
-2.01901 2.13171 0.655874 0.0487312 -0.907402 -0.41743 126 112 107
-2.01908 2.13169 0.655932 0.0496718 -0.906509 -0.419253 126 112 107
-2.01864 2.12648 0.667091 0.0146085 -0.966388 -0.256673 120 105 100
-2.01855 2.12646 0.667058 0.0118766 -0.968076 -0.250374 120 106 101
-2.0292 2.12143 0.682493 0.125959 -0.965888 -0.226264 127 114 109
-2.02847 2.12063 0.68323 0.108162 -0.940249 -0.322851 125 112 106
-2.02918 2.11878 0.693333 0.152044 -0.952991 -0.26209 122 108 101
-2.02878 2.11504 0.70421 0.0752288 -0.946202 -0.314709 116 102 97
-2.03782 2.11065 0.71178 0.116461 -0.921992 -0.36928 126 112 107
-2.03904 2.10451 0.731568 -0.0459252 -0.694369 -0.718152 139 126 121
-2.04048 2.09933 0.740501 0.0477174 -0.835584 -0.547287 126 113 108
-2.05346 2.08878 0.766751 0.0640399 -0.991358 -0.114493 130 117 110
-2.05343 2.08739 0.778078 -0.0802941 -0.996239 0.0325599 114 101 94
-2.06188 2.08225 0.794829 0.283979 -0.926316 -0.247577 129 114 107
-2.066 2.07462 0.801583 0.360504 -0.821639 -0.441527 124 112 104
-2.06689 2.07197 0.813245 0.420115 -0.834577 -0.356349 131 118 111
-2.06624 2.06725 0.824301 0.324258 -0.942245 -0.0838517 148 135 128
-2.07555 2.06416 0.82911 0.254072 -0.938537 -0.233656 122 109 102
-2.07736 2.06082 0.839858 0.263809 -0.883641 -0.38676 144 130 125
-2.07731 2.06123 0.84001 0.273743 -0.919092 -0.283435 144 130 125
-2.07645 2.05566 0.849511 -0.049008 -0.856929 -0.5131 150 136 132
-2.07467 2.04849 0.855465 0.544015 -0.528846 -0.651436 144 130 126
-2.08028 2.04675 0.872893 0.116292 -0.958836 -0.259056 140 127 122
-2.09164 2.04201 0.891324 0.00735718 -0.780468 -0.625152 134 123 115
-2.09409 2.03837 0.909393 0.196612 -0.898686 -0.392056 139 128 120
-2.10444 2.02948 0.925287 0.157823 -0.939557 -0.303851 139 128 121
-2.1029 2.02322 0.934317 0.0572493 -0.989173 -0.13513 134 123 116
-2.103 2.02006 0.946377 0.162994 -0.951916 -0.259402 134 123 116
-2.11297 2.0113 0.96836 0.216025 -0.96358 -0.157631 151 140 133
-2.1275 2.00143 0.999278 0.0630922 -0.938892 -0.33838 145 134 127
-2.12709 1.99582 1.01044 0.105396 -0.918329 -0.381528 154 143 136
-2.13784 1.98895 1.03079 0.204914 -0.972543 -0.110319 150 139 133
-2.13776 1.98526 1.0459 0.161922 -0.944859 -0.284645 136 125 119
-2.13819 1.98177 1.05768 0.399031 -0.7717 -0.49523 141 130 124
-2.14325 1.96982 1.07008 0.155205 -0.874857 -0.458843 147 135 129
-2.15204 1.96685 1.08424 0.207249 -0.922697 -0.325083 153 141 135
-2.14963 1.96545 1.08605 -0.122067 -0.927356 -0.353709 147 135 129
-2.14933 1.96013 1.09753 0.0120749 -0.937101 -0.348848 146 133 127
-2.15157 1.95622 1.10947 -0.00462168 -0.967484 -0.252888 104 107 103
-2.16055 1.9528 1.11605 -0.0168665 -0.946603 -0.321962 123 110 103
-2.15669 1.95442 1.11377 -0.0241753 -0.966256 -0.256446 125 112 106
-2.16798 1.948 1.13261 0.28099 -0.916458 -0.284868 116 103 96
-2.16882 1.94113 1.14365 0.267891 -0.820435 -0.505095 121 110 103
-2.16962 1.93549 1.15634 -0.0595968 -0.905369 -0.420422 131 121 114
-2.18277 1.92486 1.18795 0.0226054 -0.903767 -0.427428 133 123 116
-2.18291 1.92049 1.20148 0.0540011 -0.905966 -0.419892 146 136 130
-2.18291 1.92082 1.20052 0.0370836 -0.914368 -0.403183 145 136 129
-2.18325 1.91565 1.2143 0.0819118 -0.917225 -0.389857 139 130 123
-2.19407 1.90603 1.23094 0.115274 -0.856873 -0.502474 119 109 101
-2.19831 1.8986 1.25351 0.0405757 -0.98857 -0.145201 128 117 110
-2.2125 1.88609 1.28387 0.00761434 -0.881048 -0.472966 127 116 109
-2.21102 1.88326 1.29692 0.007539 -0.906238 -0.4227 139 127 121
-2.21032 1.87532 1.30654 -0.0359433 -0.877311 -0.478573 125 113 107
-2.22397 1.8679 1.33049 0.00802433 -0.91636 -0.400275 135 123 117
-2.22135 1.85801 1.34482 0.360847 -0.892642 -0.270148 128 117 109
-2.23619 1.8526 1.36498 -0.342892 -0.649183 -0.678959 123 112 105
-2.2376 1.85358 1.36552 -0.24849 -0.703121 -0.666238 122 111 103
-2.23849 1.84991 1.38106 0.226915 -0.883557 -0.409679 142 131 124
-2.23535 1.8478 1.37659 0.264595 -0.929563 -0.256713 140 129 122
-2.23883 1.84422 1.39286 0.267224 -0.845991 -0.461401 130 119 113
-2.23864 1.84431 1.39289 0.269804 -0.842265 -0.466686 131 119 113
-2.23849 1.84438 1.39291 0.272818 -0.847251 -0.455781 131 119 113
-2.2586 1.83182 1.43459 0.149094 -0.834937 -0.529766 117 107 99
-2.26107 1.82831 1.4469 0.263375 -0.949022 -0.173177 105 96 87
-2.26373 1.82203 1.45904 0.234265 -0.563581 -0.792147 92 84 75
-2.26965 1.80032 1.48711 0.338856 -0.925252 -0.170544 87 80 74
-2.27811 1.79794 1.5079 0.613299 -0.789797 -0.0091781 83 76 70
-2.27971 1.79048 1.52206 -0.0415803 -0.757822 -0.651135 83 76 70
-1.78947 2.4046 -0.0564974 0.368385 -0.92624 0.0798212 140 129 120
-1.79009 2.40497 -0.056694 0.361584 -0.930768 -0.0541158 140 129 120
-1.78949 2.40184 -0.0452087 0.16921 -0.938856 -0.299863 149 138 129
-1.79936 2.39722 -0.0396355 0.148119 -0.907254 -0.393638 153 141 132
-1.80001 2.39736 -0.0398551 0.122575 -0.913849 -0.387113 152 140 131
-1.79782 2.39243 -0.0280945 0.05079 -0.889245 -0.454604 142 130 121
-1.79792 2.38742 -0.0165502 0.0622381 -0.973935 -0.218122 165 154 145
-1.81033 2.38217 0.00159613 0.0334547 -0.975649 -0.21677 148 136 128
-1.80765 2.37969 0.0147524 -0.0110722 -0.977041 -0.212764 152 138 131
-1.81752 2.37468 0.0201583 0.245981 -0.899935 -0.360013 140 126 119
-1.81754 2.37085 0.0315098 0.122801 -0.939067 -0.32105 148 134 127
-1.82731 2.36456 0.0485573 0.0881701 -0.953375 -0.288622 139 124 118
-1.82959 2.35914 0.0631646 0.520316 -0.840587 -0.150616 145 130 124
-1.82898 2.35034 0.0860938 0.227083 -0.921285 -0.315702 143 128 122
-1.83906 2.34722 0.0908458 0.24329 -0.922353 -0.300125 155 140 134
-1.84067 2.33798 0.107429 0.419015 -0.904603 -0.0782287 151 136 130
-1.84064 2.33681 0.11931 0.420152 -0.903863 -0.0806506 158 144 138
-1.85119 2.32454 0.146857 0.214495 -0.847989 -0.484671 138 125 119
-1.85928 2.31888 0.164104 0.223163 -0.908568 -0.353134 138 124 118
-1.86122 2.31681 0.1733 0.0315903 -0.894234 -0.446484 132 117 111
-1.86032 2.3104 0.183602 0.44145 -0.891289 -0.103562 147 132 125
-1.86934 2.30903 0.190386 -0.0506996 -0.993438 -0.102517 132 120 113
-1.86955 2.30926 0.189856 -0.0350281 -0.984713 -0.170628 134 122 115
-1.87016 2.30623 0.200552 0.10604 -0.944118 -0.312084 150 138 131
-1.86979 2.30177 0.210746 0.201123 -0.920971 -0.333709 143 131 124
-1.87979 2.29606 0.226703 -0.0462908 -0.923066 -0.381845 136 124 117
-1.87983 2.29641 0.225344 -0.0434441 -0.940798 -0.336173 138 126 119
-1.87992 2.29306 0.237371 0.203574 -0.978681 0.0272379 137 124 117
-1.88788 2.28328 0.255451 0.100082 -0.934849 -0.340648 143 130 124
-1.88753 2.28009 0.267314 0.158577 -0.923841 -0.348384 152 140 133
-1.89759 2.27403 0.282977 0.107853 -0.951967 -0.286576 133 121 114
-1.89781 2.27018 0.293805 0.153545 -0.954733 -0.254771 133 121 114
-1.89778 2.2667 0.304622 0.185818 -0.939501 -0.287765 136 126 118
-1.90782 2.26368 0.32084 -0.0950237 -0.990518 0.0992216 122 111 104
-1.90774 2.26436 0.333056 -0.11327 -0.990866 0.0731779 113 102 95
-1.91714 2.2488 0.347723 0.149069 -0.949893 -0.274738 143 131 124
-1.91694 2.24514 0.358533 0.132694 -0.917073 -0.375991 144 132 125
-1.91645 2.23952 0.36896 0.285186 -0.957813 -0.0355434 145 132 125
-1.92661 2.23451 0.383789 0.429183 -0.902407 -0.0382628 117 104 98
-1.92664 2.23329 0.394946 0.469131 -0.880009 -0.0741659 134 120 114
-1.93542 2.22525 0.411246 -0.0726551 -0.947779 -0.310541 125 111 105
-1.9356 2.2213 0.422598 0.344184 -0.835252 -0.428825 121 108 101
-1.94173 2.21599 0.433991 0.227685 -0.942065 -0.246318 138 125 118
-1.94114 2.21568 0.43394 0.264472 -0.934778 -0.23716 139 126 119
-1.9404 2.21261 0.443996 0.128429 -0.971441 -0.199518 132 119 112
-1.95062 2.20767 0.46091 0.0439031 -0.967873 -0.247575 145 133 126
-1.94977 2.20476 0.471822 0.0152603 -0.892255 -0.451274 141 128 122
-1.96153 2.19787 0.48811 0.116174 -0.94575 -0.303416 120 107 99
-1.95993 2.19478 0.497374 0.0265869 -0.998942 0.03752 137 124 117
-1.96145 2.18857 0.511169 0.0980144 -0.919957 -0.379569 155 142 134
-1.97 2.18388 0.523746 -0.0439187 -0.903507 -0.426317 143 130 122
-1.96957 2.17901 0.533616 -0.19891 -0.785549 -0.585959 130 117 109
-1.9715 2.17583 0.546424 0.0728299 -0.985648 -0.152297 129 115 107
-1.98084 2.17342 0.551299 0.19033 -0.915629 -0.354115 142 127 120
-1.98562 2.16529 0.568376 0.377629 -0.868296 -0.321648 128 113 107
-1.99076 2.16026 0.586595 0.100819 -0.98903 -0.107956 125 111 104
-1.99001 2.15563 0.59824 0.234404 -0.932167 -0.275898 111 96 89
-1.9893 2.15082 0.608638 0.422576 -0.870727 -0.251521 121 107 101
-1.99898 2.14408 0.6242 0.401248 -0.860339 0.314351 112 97 91
-1.99987 2.14319 0.635662 0.0282321 -0.963733 -0.265371 120 105 101
-2.00915 2.14065 0.640841 0.360403 -0.926072 -0.111807 127 113 108
-2.00917 2.13509 0.65086 0.210463 -0.852914 -0.477747 124 109 104
-2.00918 2.131 0.661571 0.0974985 -0.937364 -0.334429 129 114 110
-2.00915 2.13128 0.661521 0.105207 -0.938398 -0.329151 129 114 109
-2.00911 2.12766 0.672755 0.276209 -0.954551 -0.111984 136 122 117
-2.00902 2.12767 0.672727 0.275405 -0.953035 -0.126001 136 122 116
-2.01908 2.12408 0.677521 0.148191 -0.973329 -0.175127 136 122 116
-2.01869 2.12375 0.678275 0.145881 -0.968393 -0.202321 137 123 117
-2.01897 2.12395 0.677464 0.150589 -0.97758 -0.147175 136 122 116
-2.01861 2.12106 0.689084 0.140794 -0.947652 -0.286588 130 117 111
-2.0194 2.11751 0.699771 0.0695766 -0.932941 -0.353243 130 117 111
-2.02892 2.11135 0.715325 -0.120861 -0.897441 -0.424255 124 111 106
-2.02849 2.10731 0.726131 -0.059212 -0.833171 -0.549836 129 117 111
-2.04128 2.09461 0.750879 0.125132 -0.940598 -0.315623 132 118 111
-2.04407 2.09118 0.761682 0.129041 -0.954753 -0.267946 130 116 111
-2.03422 2.09246 0.756183 0.27357 -0.878425 -0.391829 130 115 109
-2.04359 2.08874 0.772494 0.122665 -0.987579 -0.0981841 118 105 99
-2.05232 2.08529 0.790021 0.163393 -0.936279 -0.310942 139 127 119
-2.05717 2.07599 0.808145 0.261889 -0.899025 -0.350953 130 117 110
-2.05661 2.06906 0.818768 0.277739 -0.9602 0.0296005 132 118 114
-2.06776 2.06568 0.835198 0.3751 -0.915378 -0.146228 144 130 126
-2.06597 2.0603 0.844509 0.150375 -0.910517 -0.385157 129 115 111
-2.06571 2.05495 0.85401 0.197143 -0.887865 -0.415729 135 121 117
-2.08268 2.04694 0.888402 -0.115614 -0.991076 -0.066349 134 123 115
-2.08347 2.04164 0.903455 -0.0302635 -0.956665 -0.289614 144 134 126
-2.08138 2.03382 0.911423 0.169403 -0.932193 -0.319874 156 145 137
-2.0921 2.03092 0.918819 0.296475 -0.920424 -0.254799 147 136 128
-2.09174 2.02681 0.929276 0.307014 -0.888126 -0.342015 135 123 116
-2.09148 2.02195 0.939271 0.211058 -0.940861 -0.26502 136 124 117
-2.10446 2.01438 0.971176 0.0833347 -0.979446 -0.183686 138 127 120
-2.11287 2.00838 0.981554 0.217149 -0.952826 -0.212062 134 123 116
-2.11498 2.00532 0.994385 0.405986 -0.889043 -0.211608 139 128 121
-2.11432 1.99975 1.00664 0.407042 -0.857804 -0.313831 148 136 129
-2.12535 1.99094 1.0237 0.154979 -0.984255 -0.0849929 140 129 123
-2.12554 1.9901 1.03823 0.14247 -0.985678 -0.0902317 147 136 129
-2.12553 1.98975 1.03775 0.150694 -0.985747 -0.0747932 146 135 129
-2.1263 1.98411 1.05223 0.0345407 -0.915668 -0.400449 139 128 122
-2.13253 1.97381 1.06508 0.114526 -0.93296 -0.341276 130 119 112
-2.13223 1.96893 1.07599 0.157415 -0.932027 -0.326415 150 139 133
-2.1383 1.96377 1.09313 0.0696479 -0.938252 -0.33887 139 127 121
-2.14916 1.95626 1.11019 0.0792912 -0.963796 -0.254577 130 117 111
-2.14608 1.95802 1.10815 0.14322 -0.910167 -0.388695 140 127 121
-2.14903 1.95238 1.12257 0.142837 -0.953203 -0.266461 131 118 112
-2.14723 1.95438 1.12235 0.154353 -0.843473 -0.514517 132 119 113
-2.15856 1.94674 1.14041 0.320742 -0.647515 -0.691267 133 122 115
-2.15864 1.93819 1.14882 0.268182 -0.7471 -0.608211 142 131 124
-2.16096 1.93599 1.16577 0.169674 -0.926347 -0.336291 124 114 107
-2.17152 1.92825 1.18265 0.0832056 -0.920259 -0.38236 116 107 100
-2.1713 1.92369 1.195 0.0506018 -0.946981 -0.31728 132 123 116
-2.17174 1.9186 1.20818 0.0407935 -0.919033 -0.392063 117 107 100
-2.18309 1.91014 1.22583 0.139962 -0.90329 -0.405559 131 121 113
-2.18292 1.90454 1.23699 0.119249 -0.914667 -0.386217 135 124 116
-2.1979 1.89591 1.2665 0.0906762 -0.953285 -0.288142 120 109 102
-2.19908 1.8861 1.2905 0.0810506 -0.908175 -0.41067 141 129 123
-2.20778 1.86032 1.33533 0.188618 -0.967678 -0.167398 128 116 109
-2.22214 1.85563 1.3605 0.242777 -0.942674 -0.228966 122 111 103
-2.22371 1.85305 1.37112 0.194365 -0.952854 -0.233004 123 111 104
-2.22727 1.84913 1.38745 0.109314 -0.899264 -0.423527 133 121 115
-2.23819 1.8378 1.4031 0.144713 -0.962154 -0.230908 117 106 100
-2.23954 1.83989 1.40707 -0.0903648 -0.888159 -0.450564 117 106 100
-2.2393 1.83279 1.41932 -0.133142 -0.886592 -0.442976 126 116 108
-2.24629 1.83443 1.42894 -0.0590457 -0.82323 -0.564629 119 109 101
-2.25007 1.8312 1.44448 0.580851 -0.730672 -0.358791 112 103 95
-2.25671 1.81523 1.46788 0.0952626 -0.900598 -0.424085 94 86 78
-2.25792 1.80751 1.48297 -0.205944 -0.724254 -0.65806 94 85 79
-2.26014 1.80082 1.49322 0.345138 -0.906454 -0.243355 86 78 72
-2.27649 1.79004 1.54209 0.0832666 -0.895373 -0.437464 80 72 67
-2.28771 1.79256 1.55376 0.0142605 -0.675366 -0.737345 72 64 60
-2.29199 1.78702 1.56616 0.041045 -0.184381 -0.981997 76 69 67
-2.28987 1.78338 1.57353 0.0210736 -0.0866186 -0.996019 83 76 74
-2.29388 1.77954 1.57518 0.0374727 -0.872117 -0.487861 82 74 72
-1.78808 2.40124 -0.044494 0.0640025 -0.929652 -0.362836 147 137 127
-1.78807 2.39664 -0.0328075 0.0912454 -0.903285 -0.419225 144 133 124
-1.78695 2.39162 -0.0220252 0.171755 -0.872428 -0.457569 145 133 125
-1.79875 2.38427 -0.0052714 0.149698 -0.967852 -0.202122 143 131 123
-1.79865 2.38161 0.00605597 0.0665454 -0.971068 -0.229344 146 133 126
-1.80613 2.37483 0.0273365 0.034721 -0.941394 -0.335517 134 120 113
-1.80449 2.36932 0.0383556 0.126936 -0.955547 -0.266114 143 129 122
-1.80494 2.36898 0.0390987 0.125176 -0.967465 -0.219869 143 129 122
-1.81676 2.36405 0.0545174 0.0425138 -0.891884 -0.450261 151 137 130
-1.8217 2.35546 0.073698 0.0624862 -0.963832 -0.25908 140 124 119
-1.83158 2.34366 0.101855 0.107536 -0.940675 -0.321818 138 124 117
-1.83048 2.34012 0.114028 0.38713 -0.920254 -0.0571234 149 134 129
-1.84083 2.33335 0.130545 0.165285 -0.931435 -0.324207 145 133 126
-1.84036 2.32806 0.141784 0.10409 -0.889457 -0.445007 150 137 130
-1.84124 2.32506 0.152965 0.0629482 -0.913194 -0.402635 146 133 127
-1.84996 2.32173 0.15995 0.216965 -0.854218 -0.47248 146 133 127
-1.85057 2.31616 0.168281 0.191885 -0.917076 -0.349503 140 127 120
-1.85064 2.31252 0.178638 0.0663595 -0.935263 -0.347678 132 118 112
-1.86034 2.30864 0.195362 0.184843 -0.947469 -0.261028 144 132 125
-1.86039 2.30523 0.206104 0.175153 -0.927811 -0.329374 154 143 135
-1.8602 2.30525 0.206126 0.175644 -0.927315 -0.330507 155 143 135
-1.86014 2.30138 0.216503 0.142925 -0.900232 -0.411284 138 126 119
-1.86026 2.30137 0.216442 0.139901 -0.902713 -0.406863 138 126 119
-1.86988 2.29822 0.221284 0.0202725 -0.950943 -0.308701 128 117 109
-1.86985 2.29445 0.232226 0.0786152 -0.953129 -0.292173 139 127 120
-1.86993 2.29167 0.243147 0.103328 -0.978853 -0.176551 145 133 126
-1.87791 2.28675 0.251333 0.131168 -0.938351 -0.319831 153 141 134
-1.87781 2.283 0.262125 0.110447 -0.946357 -0.30366 145 133 126
-1.88747 2.27715 0.278323 0.202269 -0.941705 -0.268846 145 133 126
-1.87801 2.28089 0.274243 0.306647 -0.931483 -0.19572 128 117 110
-1.88781 2.27313 0.28885 0.245234 -0.924082 -0.293144 150 138 131
-1.88794 2.27024 0.30009 0.194243 -0.924904 -0.326838 145 134 127
-1.88815 2.26661 0.310392 0.14866 -0.925125 -0.349349 150 139 132
-1.89787 2.26328 0.315179 0.0679912 -0.995645 0.0637902 137 127 120
-1.89798 2.26019 0.327972 0.100674 -0.916505 -0.387148 126 116 108
-1.89814 2.2566 0.33869 0.142042 -0.8996 -0.41297 139 127 120
-1.90742 2.25233 0.343124 0.187987 -0.928127 -0.321311 131 119 112
-1.90837 2.24887 0.352791 0.390538 -0.915967 -0.0921102 149 136 130
-1.90807 2.24385 0.363367 0.116756 -0.932933 -0.340595 140 127 121
-1.90718 2.23725 0.373776 -0.0737368 -0.972869 0.219294 149 134 128
-1.91747 2.2377 0.379311 0.379825 -0.920841 -0.0882352 115 102 96
-1.91764 2.23637 0.390418 0.0959975 -0.988674 -0.115364 134 121 115
-1.91643 2.23225 0.399797 0.21021 -0.911505 -0.353512 132 119 113
-1.92539 2.22943 0.404529 0.184898 -0.965671 -0.182461 143 129 123
-1.9258 2.22562 0.415971 0.109274 -0.944288 -0.310451 135 121 115
-1.92536 2.22138 0.426679 0.40779 -0.906 -0.113449 121 107 101
-1.92704 2.21862 0.436653 -0.198884 -0.967342 0.157144 147 132 126
-1.9404 2.21024 0.455111 0.221962 -0.948693 -0.2252 137 124 118
-1.94027 2.20761 0.466608 -0.210998 -0.966998 0.14281 136 122 115
-1.94026 2.2048 0.477581 0.0783081 -0.966007 -0.246371 132 118 111
-1.9499 2.20222 0.482875 0.0654564 -0.948363 -0.310361 130 117 109
-1.95042 2.19925 0.493545 0.170598 -0.912162 -0.372635 116 103 96
-1.95038 2.19345 0.503154 0.199418 -0.842374 -0.500638 139 125 118
-1.95105 2.19021 0.51377 -0.0610208 -0.981408 0.181974 136 122 114
-1.9605 2.18329 0.529339 0.297249 -0.917429 -0.264514 143 130 122
-1.96119 2.17826 0.540487 0.478427 -0.86139 -0.170631 131 118 110
-1.97385 2.17027 0.562886 0.294847 -0.920759 -0.255477 128 114 107
-1.97361 2.16642 0.573348 0.245349 -0.926454 -0.285459 133 117 111
-1.97964 2.16483 0.58311 0.0198126 -0.990762 -0.13416 126 110 104
-1.97941 2.15907 0.593448 0.109052 -0.889542 -0.443647 124 110 104
-1.98127 2.15993 0.592607 0.197809 -0.884603 -0.422314 125 111 105
-1.98115 2.15767 0.604657 0.299728 -0.93067 0.2098 126 111 104
-1.98033 2.15638 0.604352 0.0152813 -0.984429 0.175115 126 112 105
-1.97885 2.15474 0.604141 0.3584 -0.927701 -0.104502 132 118 112
-1.98934 2.14792 0.619461 0.102518 -0.958711 -0.265262 125 111 105
-1.98976 2.146 0.630597 0.0603648 -0.964008 -0.258932 116 102 97
-1.9991 2.13886 0.646725 0.202458 -0.909892 -0.362086 118 103 99
-1.99927 2.13333 0.656523 0.157025 -0.976844 -0.145324 127 112 108
-1.9993 2.13176 0.667413 -0.0128286 -0.980812 -0.194532 139 124 119
-2.00908 2.12323 0.683956 0.102548 -0.977136 -0.186247 123 109 104
-2.01033 2.12083 0.695576 0.0359211 -0.972736 -0.229115 130 118 112
-2.00866 2.12001 0.693869 -0.110755 -0.852928 -0.510144 131 118 112
-2.01884 2.11451 0.709697 -0.029393 -0.930071 -0.366202 134 121 115
-2.0185 2.10842 0.72075 0.187392 -0.965851 -0.17893 139 126 121
-2.01867 2.10683 0.731576 0.222374 -0.957597 -0.18319 137 124 119
-2.02741 2.10277 0.736305 0.200275 -0.867716 -0.454928 145 132 127
-2.02748 2.09786 0.746325 0.155483 -0.949464 -0.27266 128 115 110
-2.03429 2.09126 0.767207 0.151115 -0.98095 -0.122071 135 121 116
-2.03393 2.0893 0.778171 0.0822142 -0.95669 -0.279259 123 109 104
-2.0334 2.08967 0.779003 0.0281865 -0.935618 -0.351888 124 110 105
-2.03372 2.08907 0.77798 0.0696814 -0.952235 -0.297309 123 109 104
-2.04319 2.08671 0.783436 -0.0128449 -0.987956 -0.154203 139 126 120
-2.04246 2.08637 0.784284 -0.0315348 -0.986604 -0.160057 139 126 119
-2.04752 2.07924 0.803106 -0.189967 -0.824555 -0.532938 135 122 115
-2.04706 2.07437 0.812512 0.0860866 -0.924849 -0.370464 135 121 116
-2.04595 2.07025 0.821098 0.128021 -0.982023 -0.138711 129 115 111
-2.05553 2.06427 0.838207 0.0594486 -0.86769 -0.493539 131 117 113
-2.05632 2.06016 0.851542 0.111094 -0.910901 -0.397389 129 115 111
-2.05543 2.05315 0.85917 0.622102 -0.735638 -0.268004 129 115 111
-2.06557 2.04973 0.863846 0.200861 -0.897845 -0.391828 137 123 119
-2.07156 2.04248 0.895491 0.195434 -0.914035 -0.35545 136 124 117
-2.07137 2.03801 0.906774 0.0820562 -0.939575 -0.332364 118 126 123
-2.08143 2.03071 0.923264 0.218146 -0.918473 -0.329878 140 129 121
-2.08175 2.02672 0.934605 0.247648 -0.884384 -0.395645 156 144 137
-2.09281 2.01599 0.963864 0.206868 -0.929607 -0.30502 145 134 127
-2.09267 2.01256 0.974449 0.139972 -0.960801 -0.23931 138 128 119
-2.10383 2.00801 0.988218 0.0216206 -0.956566 -0.290714 133 122 115
-2.104 2.0042 1.00102 -0.0246519 -0.949922 -0.311513 135 124 116
-2.11447 1.99662 1.01765 0.149135 -0.909357 -0.388367 134 123 116
-2.11237 1.99095 1.03065 0.0966358 -0.912484 -0.397535 140 129 122
-2.11347 1.98833 1.04273 -0.308411 -0.948504 -0.0722751 145 134 128
-2.12216 1.97832 1.06022 0.0627527 -0.869857 -0.489296 141 130 124
-2.12182 1.97333 1.07117 0.210637 -0.915762 -0.342071 140 129 123
-2.13865 1.95913 1.10404 0.132912 -0.914125 -0.383026 144 131 125
-2.13703 1.9543 1.11404 0.059658 -0.995533 -0.0731724 142 129 123
-2.14699 1.94941 1.134 0.0658193 -0.940697 -0.332801 140 128 121
-2.14691 1.94554 1.14648 0.44953 -0.768279 -0.455708 157 145 138
-2.15994 1.931 1.17597 0.150083 -0.890491 -0.429535 125 116 109
-2.16004 1.92672 1.18867 0.0776578 -0.944432 -0.319401 139 130 123
-2.17181 1.91935 1.2081 0.0481356 -0.915489 -0.399452 116 107 100
-2.16019 1.92213 1.20166 0.0830019 -0.91151 -0.402814 141 131 124
-2.17198 1.91442 1.22081 0.115154 -0.892265 -0.43658 128 118 111
-2.17234 1.91464 1.22249 0.185385 -0.896573 -0.40223 130 120 112
-2.17154 1.90777 1.23126 0.133011 -0.926274 -0.352597 140 129 122
-2.17167 1.90816 1.23116 0.179883 -0.91746 -0.354837 140 129 122
-2.17737 1.90289 1.25528 0.115079 -0.979348 -0.166235 134 124 117
-2.18633 1.89903 1.2602 0.214022 -0.948665 -0.23287 129 118 111
-2.18646 1.89441 1.27275 0.123603 -0.91376 -0.386996 129 118 111
-2.18741 1.88918 1.28456 0.158727 -0.918749 -0.361534 132 121 114
-2.20133 1.87502 1.31147 0.372092 -0.895668 -0.24357 126 113 107
-2.20442 1.8683 1.33437 -0.030549 -0.857654 -0.51332 125 114 107
-2.22778 1.8438 1.39954 0.114478 -0.869222 -0.480987 112 100 94
-2.22943 1.83294 1.4292 0.122677 -0.950052 -0.286969 120 110 103
-2.24381 1.81496 1.47 0.861971 -0.475936 -0.174616 100 91 83
-2.24561 1.81096 1.47652 -0.144174 -0.828979 -0.540378 94 86 78
-2.24793 1.80612 1.4859 0.337125 -0.915391 -0.220013 84 76 69
-2.26086 1.79837 1.50973 0.320507 -0.931923 -0.169692 81 74 68
-2.26057 1.79506 1.52396 -0.153637 -0.766782 -0.62325 86 78 72
-2.26446 1.79444 1.53686 0.12493 -0.914417 -0.385011 90 83 77
-2.26169 1.78322 1.53996 0.280388 -0.647587 -0.70853 92 84 80
-1.77741 2.40015 -0.0384232 0.0433404 -0.937443 -0.34543 154 144 134
-1.7771 2.39505 -0.0265924 0.174369 -0.903774 -0.39088 134 123 114
-1.7877 2.3868 -0.0106318 0.169255 -0.961808 -0.215123 150 138 129
-1.78744 2.38407 0.000524662 0.113702 -0.966271 -0.231068 148 136 127
-1.7968 2.37697 0.0206172 -0.0569996 -0.973251 -0.222564 139 125 118
-1.79535 2.37307 0.0331294 -0.024675 -0.92506 -0.379019 154 140 133
-1.79559 2.37265 0.032984 -0.00775015 -0.914171 -0.405254 154 140 133
-1.80496 2.36513 0.0495907 0.134925 -0.886846 -0.441927 144 130 123
-1.80443 2.36056 0.0606508 0.160398 -0.932364 -0.323992 148 133 127
-1.8044 2.35746 0.0718112 0.231308 -0.909707 -0.344862 146 132 126
-1.8129 2.35022 0.0892971 -0.00132477 -0.92802 -0.372527 149 134 128
-1.8207 2.34221 0.108964 0.0567176 -0.931001 -0.360584 145 129 124
-1.82045 2.33831 0.120453 0.0179097 -0.964349 -0.264028 134 118 113
-1.83049 2.33613 0.12526 0.0953601 -0.937203 -0.335495 122 108 102
-1.83048 2.33251 0.136307 0.048626 -0.934246 -0.353297 144 131 124
-1.82979 2.32842 0.148293 0.0822929 -0.905676 -0.415908 133 120 113
-1.84078 2.31822 0.163811 0.382871 -0.799752 -0.462393 151 138 132
-1.84116 2.31545 0.174004 0.18551 -0.914136 -0.360473 152 139 133
-1.84086 2.31289 0.184333 0.187393 -0.923915 -0.333563 134 121 115
-1.85035 2.31106 0.189935 0.0656592 -0.996404 -0.0535618 140 127 120
-1.85064 2.30795 0.201059 0.077782 -0.95948 -0.270827 148 136 129
-1.85101 2.30518 0.212015 0.169616 -0.890043 -0.423147 145 134 126
-1.85098 2.30507 0.212271 0.186214 -0.893156 -0.409386 146 134 126
-1.85082 2.30518 0.212028 0.171912 -0.894693 -0.412275 145 134 126
-1.85135 2.30155 0.2226 0.1016 -0.957325 -0.270568 159 147 140
-1.85143 2.30149 0.222518 0.103896 -0.95542 -0.276364 159 147 140
-1.86019 2.29843 0.226592 0.214162 -0.95663 -0.197468 138 127 119
-1.86031 2.29626 0.237634 0.207514 -0.95607 -0.207045 142 130 123
-1.86013 2.29118 0.248945 0.15098 -0.916182 -0.371236 141 128 120
-1.8696 2.28728 0.254537 0.185687 -0.926787 -0.326474 142 129 122
-1.86746 2.28189 0.267843 0.0696868 -0.939984 -0.334027 130 117 111
-1.87828 2.27711 0.284297 0.245297 -0.88342 -0.399246 130 118 112
-1.87831 2.27341 0.295085 0.182057 -0.927488 -0.326528 143 131 124
-1.87825 2.26986 0.305974 0.159594 -0.948987 -0.271945 130 118 111
-1.88814 2.26274 0.321214 0.0599669 -0.935822 -0.347333 132 121 114
-1.88845 2.26021 0.333858 0.140584 -0.92621 -0.349817 137 125 118
-1.89824 2.25222 0.348828 0.138806 -0.87477 -0.464231 140 127 121
-1.89857 2.24799 0.358573 0.125044 -0.922722 -0.364622 131 119 113
-1.89846 2.24349 0.36919 0.121801 -0.919312 -0.374205 133 121 115
-1.90797 2.2383 0.384818 0.192476 -0.969167 -0.153846 143 130 124
-1.90706 2.2355 0.396268 0.0583434 -0.969962 -0.236157 146 133 126
-1.91564 2.22704 0.410763 -0.0232054 -0.974321 0.223967 137 122 116
-1.91607 2.22507 0.421696 0.122876 -0.954296 -0.272435 134 120 114
-1.91689 2.22226 0.43238 0.080132 -0.954067 -0.28868 139 125 119
-1.92725 2.21572 0.447585 0.0441957 -0.952162 -0.302382 130 117 110
-1.92902 2.20904 0.461296 0.298891 -0.918475 -0.258974 150 137 130
-1.93029 2.2064 0.472201 0.0991634 -0.917479 -0.385226 139 126 119
-1.94025 2.20171 0.488773 -0.00781095 -0.962374 -0.271618 126 113 106
-1.9406 2.19723 0.499238 0.0922194 -0.875972 -0.473465 131 117 110
-1.94154 2.19392 0.509169 0.185644 -0.919711 -0.345932 154 141 133
-1.95072 2.18564 0.52461 0.0968012 -0.972072 0.213789 129 115 107
-1.95112 2.18364 0.535259 0.286046 -0.9561 -0.0636478 123 109 101
-1.96133 2.17195 0.559936 0.935866 -0.349524 0.0445806 136 120 114
-1.96143 2.16927 0.570464 0.208265 -0.935378 -0.285821 132 118 110
-1.96171 2.16338 0.580993 -0.150294 -0.945093 -0.290193 124 110 103
-1.97185 2.1635 0.587123 -0.31187 -0.945316 0.0954755 119 104 97
-1.97142 2.15874 0.5983 -0.0499565 -0.94974 -0.309028 137 123 117
-1.97997 2.15263 0.61479 0.199528 -0.884111 -0.422535 134 121 114
-1.98036 2.15204 0.614598 0.224599 -0.895002 -0.385391 135 121 115
-1.97967 2.14738 0.625155 0.070412 -0.916064 -0.394803 129 115 109
-1.97981 2.14472 0.636418 -0.0868466 -0.980188 -0.178016 132 118 113
-1.97918 2.14333 0.635495 -0.0705921 -0.994503 0.0773379 133 119 113
-1.98879 2.14056 0.641905 -0.0949913 -0.963091 -0.251858 112 98 93
-1.99008 2.13613 0.651395 0.0328087 -0.942891 -0.331483 112 97 93
-1.98954 2.1332 0.662037 0.1315 -0.911496 -0.389721 119 105 99
-1.99872 2.11919 0.699032 0.0936889 -0.977172 -0.190675 128 116 110
-2.00045 2.12366 0.690515 0.104752 -0.923538 -0.368924 130 116 111
-2.00854 2.11762 0.704632 0.052735 -0.873734 -0.483536 138 125 119
-2.00834 2.11332 0.714898 -0.0255519 -0.777471 -0.628399 122 110 102
-2.00864 2.10977 0.72479 0.0943195 -0.99549 0.0101747 136 123 118
-2.01743 2.10273 0.740843 0.306073 -0.856905 -0.414768 144 131 126
-2.02529 2.09448 0.762132 0.632492 -0.76394 0.127867 138 123 116
-2.02405 2.09648 0.763177 0.323064 -0.930933 0.170277 138 123 116
-2.02404 2.09128 0.772902 0.413494 -0.804207 -0.426935 142 128 123
-2.02356 2.08701 0.783473 0.0704236 -0.918836 -0.388305 130 116 111
-2.03311 2.08585 0.789245 0.0812175 -0.9352 -0.344681 126 112 108
-2.0365 2.08083 0.796511 -0.283336 -0.938191 -0.198792 139 126 120
-2.03568 2.07438 0.81607 0.25383 -0.842668 -0.474848 124 110 106
-2.04516 2.06727 0.832797 0.226488 -0.948402 -0.221895 153 139 135
-2.04508 2.06434 0.844489 0.102273 -0.914698 -0.390983 147 133 129
-2.04629 2.06445 0.847073 0.11608 -0.97272 -0.200852 145 131 127
-2.05821 2.04677 0.890368 0.0840623 -0.957847 -0.274705 143 130 125
-2.07145 2.03507 0.918747 0.0752666 -0.927419 -0.366372 154 143 135
-2.07152 2.02533 0.939095 0.21051 -0.952467 -0.220209 148 136 129
-2.08273 2.02047 0.958925 0.206913 -0.928558 -0.308167 154 143 135
-2.08231 2.01604 0.969364 0.165059 -0.882267 -0.440864 147 136 128
-2.09289 2.00699 0.994883 -0.00972554 -0.956696 -0.290926 150 139 131
-2.09362 2.00457 1.0076 0.181286 -0.940301 -0.288044 139 129 120
-2.10398 2.0003 1.01263 0.256916 -0.917243 -0.304399 131 120 113
-2.10388 1.99532 1.02375 0.153305 -0.834295 -0.529575 122 111 104
-2.10197 1.98996 1.0369 0.150461 -0.937138 -0.314856 136 125 118
-2.11106 1.98115 1.054 0.106978 -0.932295 -0.345517 135 124 117
-2.11114 1.97693 1.06613 0.0987069 -0.916473 -0.387729 130 119 113
-2.12188 1.96827 1.08183 -0.0496598 -0.893442 -0.446424 154 143 137
-2.12793 1.96297 1.09895 0.076847 -0.950537 -0.300956 137 125 119
-2.12483 1.95851 1.10885 0.114112 -0.904104 -0.411794 141 129 123
-2.13745 1.95157 1.12811 0.171825 -0.945522 -0.276522 132 119 113
-2.13543 1.95247 1.12743 0.0685737 -0.983739 -0.166001 138 125 119
-2.1353 1.94846 1.1397 0.148986 -0.949481 -0.276206 132 119 112
-2.14763 1.93575 1.17114 0.116687 -0.907379 -0.403792 133 124 116
-2.14714 1.9303 1.18181 0.044022 -0.957141 -0.286258 152 142 135
-2.14859 1.92473 1.19468 0.070171 -0.922454 -0.379677 145 136 129
-2.16111 1.91834 1.21761 0.174271 -0.942186 -0.286209 144 134 127
-2.16089 1.91835 1.21625 0.2306 -0.924206 -0.304413 144 134 127
-2.16148 1.91371 1.22879 0.259368 -0.895558 -0.361531 133 121 114
-2.16112 1.91297 1.22743 0.146725 -0.891916 -0.427735 133 122 114
-2.1752 1.89838 1.26693 0.174661 -0.912426 -0.370098 130 119 112
-2.175 1.89286 1.27889 0.111464 -0.927677 -0.356358 140 129 122
-2.18845 1.88654 1.3013 0.176926 -0.791842 -0.584537 142 130 124
-2.18938 1.87827 1.30681 0.373156 -0.895336 -0.243162 133 121 115
-2.19031 1.87447 1.32368 -0.0952334 -0.917906 -0.3852 126 114 106
-2.19118 1.87069 1.32672 -0.0130455 -0.976898 -0.21331 123 111 103
-2.21129 1.85365 1.37868 0.169905 -0.948255 -0.268225 126 114 108
-2.21526 1.84663 1.39269 0.0211959 -0.887832 -0.459679 125 113 107
-2.22924 1.82777 1.44218 0.100208 -0.938493 -0.330438 114 105 97
-2.23037 1.81564 1.45383 0.48388 -0.767216 -0.420999 103 95 87
-2.23717 1.81437 1.48413 0.88041 -0.465804 -0.0889053 89 81 74
-2.24805 1.80258 1.50032 0.290584 -0.925488 -0.242968 83 75 68
-2.252 1.79836 1.53033 0.183695 -0.886844 -0.423985 86 79 73
-2.25089 1.7885 1.53568 0.223462 -0.969925 -0.0964907 83 76 70
-2.26223 1.77519 1.55006 0.532324 -0.846518 0.00623053 89 81 77
-1.7671 2.40095 -0.0316005 0.185718 -0.978856 -0.0857295 149 139 129
-1.76799 2.39495 -0.0205669 0.320614 -0.909976 -0.262965 146 135 126
-1.77772 2.38717 -0.00382383 0.214761 -0.957131 -0.194366 138 126 118
-1.77773 2.38718 -0.00461254 0.224484 -0.954389 -0.196846 136 124 116
-1.78221 2.37898 0.0123735 0.307311 -0.861862 -0.403428 154 142 134
-1.78214 2.37911 0.0121835 0.278406 -0.864975 -0.417502 154 142 134
-1.78513 2.37414 0.0272403 0.402039 -0.913759 -0.0583938 138 125 118
-1.78519 2.37447 0.0270807 0.401954 -0.913763 -0.0589084 138 125 118
-1.78473 2.36991 0.0389738 0.0872158 -0.953724 -0.287758 154 141 134
-1.79461 2.36779 0.0449097 -0.0165351 -0.968649 -0.247882 144 130 123
-1.79408 2.36369 0.0563685 0.102766 -0.933745 -0.342869 151 137 130
-1.79497 2.36487 0.0554709 0.0909745 -0.968797 -0.230556 152 138 131
-1.79487 2.36158 0.0666383 0.16248 -0.953215 -0.254914 131 117 110
-1.80411 2.35722 0.0724678 0.20107 -0.908539 -0.366235 145 131 125
-1.80408 2.35331 0.083462 -0.0474276 -0.987881 0.147788 162 147 141
-1.8023 2.34863 0.095099 0.197346 -0.930578 -0.308349 143 127 121
-1.8129 2.34556 0.100918 0.0530008 -0.934511 -0.351967 131 115 110
-1.8096 2.34257 0.114918 0.244016 -0.969395 0.0270213 149 133 127
-1.82075 2.33724 0.131128 0.171956 -0.937747 -0.301764 153 138 132
-1.81945 2.33247 0.14284 0.0764092 -0.923147 -0.376778 155 142 136
-1.82975 2.32299 0.159527 0.10677 -0.909845 -0.400977 145 130 125
-1.83101 2.31625 0.179116 0.270724 -0.936812 -0.221564 149 136 130
-1.83102 2.31285 0.18994 0.373395 -0.883068 -0.284196 136 124 117
-1.84 2.30978 0.195583 0.0261024 -0.999482 -0.01883 147 135 128
-1.84138 2.30766 0.207203 0.00308022 -0.96391 -0.266211 147 133 126
-1.84122 2.30733 0.207287 -0.0137815 -0.9641 -0.265181 147 134 127
-1.84155 2.30371 0.217521 0.105851 -0.900514 -0.421747 156 145 137
-1.8507 2.29876 0.232523 0.280379 -0.91747 -0.282201 137 124 117
-1.85136 2.29812 0.233472 0.584625 -0.800759 -0.130378 137 123 116
-1.85024 2.29582 0.243976 0.0463093 -0.89819 -0.437161 139 126 119
-1.85959 2.28338 0.263463 0.0858518 -0.828756 -0.552985 141 128 122
-1.857 2.27988 0.273556 -0.116406 -0.938028 -0.326425 131 119 112
-1.86744 2.28037 0.279451 -0.0345662 -0.991467 -0.12569 133 122 115
-1.86818 2.27592 0.289708 -0.078439 -0.823001 -0.562599 154 142 135
-1.86857 2.27271 0.301001 0.138181 -0.918853 -0.369614 154 142 135
-1.8783 2.26592 0.316269 0.139178 -0.933763 -0.32972 132 121 114
-1.87857 2.26272 0.328728 0.118492 -0.95072 -0.286515 124 112 105
-1.87806 2.25711 0.340126 0.276234 -0.960646 -0.0292242 124 111 104
-1.88839 2.25599 0.344532 0.140286 -0.875244 -0.46289 135 123 116
-1.88867 2.25166 0.354265 0.137704 -0.866168 -0.480407 136 124 117
-1.88867 2.24685 0.364334 0.105324 -0.93265 -0.345066 133 121 115
-1.88867 2.24685 0.36436 0.117746 -0.934887 -0.334847 133 121 115
-1.8888 2.24289 0.374973 0.128432 -0.947286 -0.29352 137 124 118
-1.89805 2.23806 0.379677 -0.0990777 -0.990834 0.0918228 126 113 107
-1.89747 2.23781 0.390977 0.0653586 -0.970423 -0.232393 152 140 133
-1.8974 2.23499 0.401906 0.174961 -0.951586 -0.252729 138 125 119
-1.90655 2.2311 0.406757 0.165106 -0.916291 -0.364899 137 124 118
-1.90626 2.22844 0.417134 0.188096 -0.929965 -0.315888 148 135 129
-1.90634 2.22373 0.42734 0.12999 -0.892726 -0.431443 125 111 105
-1.91779 2.21922 0.442494 0.0786604 -0.949904 -0.302482 145 131 124
-1.91683 2.21318 0.452382 0.00412634 -0.968634 -0.248457 130 116 109
-1.91976 2.20963 0.466944 0.356003 -0.888875 -0.288381 143 129 122
-1.92063 2.20599 0.477901 0.10716 -0.857939 -0.502452 146 133 126
-1.93031 2.20363 0.48319 0.0675114 -0.966108 -0.249154 143 130 123
-1.93062 2.20035 0.494607 0.0654603 -0.941229 -0.331365 143 130 123
-1.93099 2.19591 0.504764 0.113929 -0.873418 -0.473456 152 139 132
-1.94086 2.18824 0.519423 0.0955588 -0.925754 -0.365853 130 117 108
-1.93976 2.18401 0.531726 -0.0452009 -0.994354 -0.0960019 134 121 113
-1.94954 2.17889 0.545462 -0.0355332 -0.96183 -0.271332 134 120 112
-1.95087 2.1747 0.555809 -0.158071 -0.966869 -0.200442 130 116 109
-1.95113 2.1715 0.566438 0.0428665 -0.914547 -0.402203 127 114 106
-1.95291 2.16855 0.575269 0.0502695 -0.735713 -0.675425 122 109 101
-1.9613 2.16059 0.592547 0.0160255 -0.999665 0.0203162 144 131 123
-1.96098 2.16003 0.604035 0.448388 -0.818327 0.359569 143 129 122
-1.9711 2.15661 0.6104 0.224256 -0.952701 0.205109 118 103 96
-1.97034 2.15158 0.620405 0.210124 -0.91113 -0.354527 114 100 93
-1.96985 2.14485 0.631444 0.264556 -0.940795 -0.211929 124 110 104
-1.97988 2.14026 0.646892 0.160345 -0.902995 -0.39861 130 116 111
-1.97996 2.13679 0.657406 0.15441 -0.932176 -0.327422 137 122 117
-1.98913 2.13027 0.673048 -0.00593218 -0.982857 -0.184273 120 106 101
-1.98051 2.13445 0.668132 -0.0807258 -0.987868 0.132667 110 96 89
-1.98855 2.12609 0.683462 -0.166556 -0.787358 -0.593571 115 101 96
-1.98882 2.12002 0.693219 0.0718369 -0.994407 -0.0774159 121 108 102
-1.99827 2.11611 0.709257 0.321672 -0.88082 -0.347396 137 124 118
-1.9988 2.11536 0.710767 0.224978 -0.839437 -0.494702 138 126 120
-1.99926 2.11199 0.720663 0.393243 -0.871588 -0.292737 132 119 114
-1.99945 2.10949 0.731151 0.163084 -0.954431 -0.249929 131 119 113
-2.00874 2.10617 0.736049 0.397898 -0.907711 -0.133183 142 129 124
-2.00838 2.10308 0.747073 0.283984 -0.954149 -0.0946197 121 107 100
-2.01527 2.1001 0.757267 0.316726 -0.920497 -0.228846 147 134 129
-2.01478 2.09601 0.76959 0.486609 -0.837902 -0.247251 134 120 115
-2.01519 2.09181 0.779536 0.118884 -0.817424 -0.563635 140 126 121
-2.02319 2.08749 0.784432 0.0627278 -0.940707 -0.333371 130 116 111
-2.02333 2.08045 0.798197 -0.144805 -0.756938 -0.637241 143 129 124
-2.02549 2.07761 0.811034 -0.0108688 -0.869742 -0.493387 152 138 133
-2.02417 2.07835 0.810814 0.130485 -0.93988 -0.315593 149 136 131
-2.03446 2.07009 0.826672 0.183434 -0.972245 -0.145229 143 129 125
-2.03443 2.0662 0.837622 0.12804 -0.948959 -0.28824 150 136 132
-2.03407 2.06654 0.837843 0.242301 -0.940681 -0.237506 151 137 133
-2.04458 2.05855 0.85666 -0.0165672 -0.933478 -0.358251 136 122 118
-2.0494 2.0557 0.870224 0.392202 -0.88967 -0.233807 147 133 129
-2.04972 2.04997 0.886692 0.247167 -0.884094 -0.396595 128 114 110
-2.05805 2.04233 0.901182 0.194003 -0.918938 -0.343388 125 113 108
-2.06039 2.03669 0.911474 0.0904402 -0.880853 -0.46467 137 125 118
-2.06101 2.03382 0.925055 0.0741512 -0.930192 -0.359506 133 122 114
-2.06148 2.0306 0.93573 0.0168872 -0.923165 -0.384033 137 126 118
-2.07186 2.02335 0.952577 0.284074 -0.905699 -0.314662 141 131 123
-2.07299 2.02156 0.965768 0.364666 -0.835028 -0.412004 135 124 117
-2.08357 2.01312 0.982002 0.228007 -0.958685 -0.170106 153 142 134
-2.08442 2.00882 0.992698 0.12667 -0.80749 -0.57612 147 136 128
-2.08488 2.009 0.992868 0.342934 -0.902211 -0.261557 146 136 128
-2.0929 1.99917 1.01873 -0.00381452 -0.946498 -0.322686 142 132 124
-2.09194 1.99286 1.03056 0.116829 -0.818439 -0.562591 152 141 134
-2.09996 1.98393 1.04771 -0.0222904 -0.967455 -0.252061 126 115 108
-2.10028 1.98029 1.06069 0.127355 -0.939635 -0.317594 150 138 132
-2.10035 1.98027 1.06068 0.12398 -0.937771 -0.324367 150 138 132
-2.11121 1.97223 1.07787 0.0264278 -0.928758 -0.369742 133 122 116
-2.11151 1.96815 1.091 0.104568 -0.818153 -0.565413 131 120 113
-2.11247 1.96364 1.10416 0.204419 -0.884907 -0.418512 140 128 122
-2.1244 1.95396 1.12001 0.166469 -0.949461 -0.266106 141 128 122
-2.12385 1.95163 1.13308 0.180099 -0.981113 -0.0705845 148 135 128
-2.13525 1.94457 1.15209 0.106129 -0.942461 -0.317023 131 119 112
-2.1352 1.94024 1.16443 0.134157 -0.909512 -0.393432 138 127 119
-2.13594 1.93398 1.17639 0.121266 -0.935814 -0.330979 138 128 120
-2.14958 1.92266 1.21032 0.246063 -0.931534 -0.267763 136 126 118
-2.14974 1.92201 1.21066 0.251233 -0.934762 -0.251201 136 126 118
-2.14943 1.91782 1.2238 0.270783 -0.8911 -0.364168 149 137 130
-2.14977 1.91855 1.22289 0.266923 -0.900756 -0.342624 146 134 127
-2.16153 1.90969 1.24123 0.201504 -0.950254 -0.237516 130 117 110
-2.16342 1.90118 1.25971 0.114064 -0.980471 -0.160206 138 126 119
-2.16402 1.89727 1.27388 0.11946 -0.912688 -0.390808 141 129 123
-2.17656 1.88984 1.29563 0.0434783 -0.93844 -0.342696 140 127 121
-2.17653 1.88498 1.30863 0.0338073 -0.968475 -0.246806 129 116 109
-2.1782 1.87724 1.31869 -0.103624 -0.857668 -0.503654 133 120 113
-2.19205 1.86915 1.3446 0.0788445 -0.972878 -0.217466 116 104 97
-2.19295 1.86451 1.34607 0.189106 -0.981705 0.0222234 120 109 101
-2.19933 1.8504 1.38098 -0.226097 -0.522146 -0.822341 122 111 103
-2.20087 1.84657 1.38969 -0.0363837 -0.959898 -0.27798 127 117 109
-2.21478 1.82685 1.42518 0.516701 -0.754214 -0.405193 117 108 100
-2.21682 1.81975 1.43628 0.593873 -0.683072 -0.42512 112 102 95
-2.22061 1.8232 1.45047 0.126761 -0.814969 -0.565471 108 99 92
-2.22348 1.81997 1.46522 0.835272 -0.525499 -0.161777 100 91 85
-2.23476 1.80639 1.48992 0.382573 -0.828625 -0.40868 92 84 77
-2.23547 1.80357 1.50701 0.139309 -0.920035 -0.366236 91 83 75
-2.25307 1.78347 1.55158 0.300796 -0.953609 -0.0123023 96 88 83
-1.76766 2.38909 -0.00890354 0.0458031 -0.923191 -0.381604 143 131 123
-1.76781 2.39036 -0.00959227 0.206015 -0.908551 -0.363446 143 132 124
-1.76823 2.38973 0.00209785 0.4652 -0.872796 -0.147704 146 134 126
-1.76795 2.38808 0.00232476 0.290036 -0.943208 -0.161979 147 135 127
-1.77181 2.38394 0.0124336 0.55794 -0.78526 -0.26846 161 150 141
-1.77164 2.38404 0.0122365 0.554247 -0.791043 -0.258961 161 150 141
-1.77549 2.37905 0.0225652 0.569914 -0.791152 -0.221984 147 136 128
-1.77539 2.37878 0.0224224 0.550464 -0.811028 -0.198047 148 136 128
-1.77528 2.37457 0.0336642 0.265411 -0.911511 -0.314173 132 120 113
-1.77526 2.37465 0.033512 0.270845 -0.911995 -0.308073 132 120 113
-1.78458 2.36735 0.0507397 0.0556564 -0.97639 -0.20872 127 114 107
-1.78448 2.36456 0.0621674 0.0536416 -0.97603 -0.210922 121 107 100
-1.79407 2.35683 0.078877 0.273369 -0.908798 -0.315208 139 125 118
-1.79281 2.3529 0.0905926 0.361237 -0.867123 -0.342937 153 139 132
-1.80173 2.34511 0.107337 0.214736 -0.902279 -0.373873 140 124 118
-1.80898 2.338 0.126127 0.0971737 -0.967427 -0.233756 142 127 120
-1.80983 2.33615 0.137255 0.390789 -0.918019 -0.0672743 152 139 133
-1.81975 2.3303 0.153734 0.333631 -0.942204 -0.0307025 144 131 125
-1.82013 2.31663 0.185926 0.298791 -0.916293 -0.266704 128 115 109
-1.82973 2.30885 0.201274 0.235949 -0.951712 -0.1964 149 137 131
-1.83015 2.30774 0.212696 0.183937 -0.93266 -0.310341 148 135 129
-1.83261 2.30321 0.223297 0.16322 -0.985614 0.0438592 124 112 105
-1.84203 2.30221 0.229031 -0.035114 -0.993076 0.112101 139 127 120
-1.84258 2.30181 0.228705 0.0684697 -0.994352 0.0810908 138 126 119
-1.8417 2.30044 0.238803 0.566952 -0.819061 -0.0877725 131 120 113
-1.85035 2.28672 0.259479 0.101688 -0.808321 -0.579894 150 138 131
-1.85041 2.28301 0.269705 0.115573 -0.891589 -0.43785 141 128 121
-1.84953 2.27829 0.280744 0.0367807 -0.980636 -0.192353 126 113 106
-1.85944 2.27742 0.286204 0.278911 -0.96006 -0.0222047 139 126 120
-1.86329 2.27354 0.299464 0.174115 -0.909465 -0.377567 163 150 144
-1.85899 2.27143 0.30747 0.268552 -0.937996 -0.219187 150 138 131
-1.86863 2.26869 0.311808 0.167398 -0.910542 -0.378009 148 135 128
-1.86873 2.26564 0.322344 0.520472 -0.832541 -0.189698 135 122 116
-1.86925 2.26225 0.334179 0.0213462 -0.92227 -0.385958 126 113 106
-1.87887 2.25423 0.34996 0.18779 -0.887635 -0.420522 139 126 120
-1.8771 2.25443 0.349672 0.249695 -0.871008 -0.423081 137 124 118
-1.87914 2.25023 0.360038 0.168063 -0.889084 -0.425776 137 124 118
-1.87902 2.24664 0.370178 -0.191935 -0.963924 0.184424 138 123 117
-1.88782 2.23994 0.38567 0.271672 -0.903064 0.332671 132 117 111
-1.88861 2.23948 0.396815 -0.269408 -0.952347 0.143017 116 101 95
-1.88829 2.23902 0.397064 -0.171723 -0.967715 0.184494 116 101 94
-1.89693 2.23087 0.412509 0.144355 -0.929996 -0.338036 135 122 116
-1.89668 2.22641 0.422811 0.144127 -0.952847 -0.267037 121 107 101
-1.89652 2.22113 0.432146 0.200182 -0.831346 -0.518451 133 119 112
-1.90691 2.21928 0.437455 0.045699 -0.875349 -0.481328 155 141 134
-1.90578 2.21518 0.448381 -0.119512 -0.955607 -0.269318 137 123 117
-1.9067 2.21373 0.460248 0.120522 -0.989756 -0.0765364 136 122 116
-1.91009 2.2076 0.472223 -0.0469655 -0.942306 -0.331443 140 126 119
-1.92021 2.20206 0.488748 -0.0180048 -0.976369 -0.21536 143 129 123
-1.92074 2.19907 0.500215 -0.202133 -0.96927 0.140208 130 114 108
-1.93239 2.19412 0.515244 0.317627 -0.898473 -0.303084 142 129 121
-1.92987 2.18729 0.526862 0.15607 -0.906068 -0.393297 130 116 109
-1.92914 2.18455 0.536539 0.357786 -0.892949 -0.273189 142 126 119
-1.93177 2.18113 0.544656 0.193425 -0.857711 -0.476359 139 125 118
-1.94117 2.17641 0.550319 -0.0477978 -0.934588 -0.352507 139 123 116
-1.94259 2.17315 0.562103 0.0758458 -0.970859 -0.227335 129 115 107
-1.94092 2.17348 0.561296 0.123394 -0.983704 -0.130769 133 119 111
-1.94299 2.17175 0.571382 -0.0208282 -0.954176 -0.298519 120 107 99
-1.9431 2.16682 0.582055 0.334476 -0.808914 -0.483513 124 110 103
-1.95242 2.16361 0.5872 0.054888 -0.964564 -0.258076 126 112 105
-1.94952 2.16269 0.588092 0.25004 -0.943886 -0.215776 127 113 106
-1.94922 2.16113 0.598716 0.280632 -0.957036 -0.0729934 132 119 111
-1.95839 2.15771 0.603158 0.117297 -0.958778 -0.258815 148 134 127
-1.9591 2.15444 0.61466 0.122351 -0.89976 -0.418883 127 113 106
-1.95974 2.15098 0.626042 -0.0895858 -0.855482 -0.510025 126 112 106
-1.96923 2.14178 0.640754 0.472198 -0.868264 -0.152138 126 111 107
-1.97028 2.1439 0.641219 -0.00725687 -0.986941 0.160922 121 106 99
-1.96086 2.14755 0.636777 -0.23478 -0.962297 0.137342 136 122 115
-1.96848 2.14286 0.641528 0.39879 -0.869726 -0.290762 127 113 108
-1.97046 2.14003 0.652659 0.445541 -0.83922 -0.311773 130 116 111
-1.97023 2.13578 0.663034 0.270864 -0.90609 -0.325013 121 107 102
-1.97856 2.12394 0.688912 0.249231 -0.788983 -0.561596 128 114 109
-1.98024 2.12086 0.700958 0.130638 -0.958837 -0.252122 128 116 109
